# .PCD v0.7 - Point Cloud Data file format
VERSION 0.7
FIELDS x y z rgb
SIZE 4 4 4 4
TYPE F F F U
COUNT 1 1 1 1
WIDTH 1006
HEIGHT 1
VIEWPOINT 0 0 0 1 0 0 0
POINTS 1006
DATA ascii
-0.078298129 0.073698334 0.019262699 4278190335
-0.078298129 0.077799916 0.020706844 4278190335
-0.078298129 0.081901498 0.02302919 4278190335
-0.078298129 0.08600308 0.024504708 4278190335
-0.078298129 0.090104662 0.024176903 4278190335
-0.078298129 0.094206244 0.023849098 4278190335
-0.078298129 0.098307826 0.024463845 4278190335
-0.078298129 0.10240941 0.026395006 4278190335
-0.078298129 0.10651099 0.028294336 4278190335
-0.078298129 0.11061257 0.030079823 4278190335
-0.078298129 0.11471415 0.031815041 4278190335
-0.078298129 0.15983154 0.024374871 4278190335
-0.078298129 0.16393313 0.02363967 4278190335
-0.078298129 0.1680347 0.022904469 4278190335
-0.078298129 0.17213629 0.020890195 4278190335
-0.078298129 0.17623787 0.017991241 4278190335
-0.078298129 0.18033946 0.014743675 4278190335
-0.078298129 0.18444103 0.01149611 4278190335
-0.074196547 -0.13548231 0.011126127 4278190335
-0.074196547 -0.13138074 0.014137954 4278190335
-0.074196547 -0.12727915 0.014321994 4278190335
-0.074196547 -0.12317757 0.015247713 4278190335
-0.074196547 -0.11907599 0.016451761 4278190335
-0.074196547 -0.11497441 0.01739623 4278190335
-0.074196547 -0.11087283 0.019390935 4278190335
-0.074196547 -0.10677125 0.020192673 4278190335
-0.074196547 -0.10266966 0.021207502 4278190335
-0.074196547 -0.098568082 0.023222275 4278190335
-0.074196547 -0.0944665 0.026840374 4278190335
-0.074196547 -0.090364918 0.028227186 4278190335
-0.074196547 -0.086263336 0.030442797 4278190335
-0.074196547 -0.082161754 0.031715073 4278190335
-0.074196547 -0.07806018 0.031623363 4278190335
-0.074196547 -0.073958598 0.030189347 4278190335
-0.074196547 -0.069857016 0.028476235 4278190335
-0.074196547 -0.065755434 0.025949107 4278190335
-0.074196547 -0.061653852 0.019713625 4278190335
-0.074196547 0.061393593 0.010109867 4278190335
-0.074196547 0.065495171 0.012650043 4278190335
-0.074196547 0.069596753 0.015190219 4278190335
-0.074196547 0.073698334 0.016811252 4278190335
-0.074196547 0.077799916 0.019133598 4278190335
-0.074196547 0.081901498 0.021455944 4278190335
-0.074196547 0.08600308 0.021350907 4278190335
-0.074196547 0.090104662 0.021023102 4278190335
-0.074196547 0.094206244 0.021315573 4278190335
-0.074196547 0.098307826 0.023246733 4278190335
-0.074196547 0.10240941 0.025177894 4278190335
-0.074196547 0.10651099 0.026983071 4278190335
-0.074196547 0.16393313 0.021293176 4278190335
-0.074196547 0.1680347 0.020557974 4278190335
-0.074196547 0.17213629 0.019822773 4278190335
-0.074196547 0.17623787 0.017524773 4278190335
-0.074196547 0.18033946 0.014594525 4278190335
-0.074196547 0.18444103 0.01134696 4278190335
-0.070094965 -0.13548231 0.016354242 4278190335
-0.070094965 -0.13138074 0.017788662 4278190335
-0.070094965 -0.12727915 0.017723758 4278190335
-0.070094965 -0.12317757 0.018595787 4278190335
-0.070094965 -0.11907599 0.019796379 4278190335
-0.070094965 -0.11497441 0.021314999 4278190335
-0.070094965 -0.11087283 0.023087295 4278190335
-0.070094965 -0.10677125 0.024832116 4278190335
-0.070094965 -0.10266966 0.025809422 4278190335
-0.070094965 -0.098568082 0.028470103 4278190335
-0.070094965 -0.0944665 0.029504418 4278190335
-0.070094965 -0.090364918 0.031487208 4278190335
-0.070094965 -0.086263336 0.032980289 4278190335
-0.070094965 -0.082161754 0.033534318 4278190335
-0.070094965 -0.07806018 0.033115741 4278190335
-0.070094965 -0.073958598 0.03151964 4278190335
-0.070094965 -0.069857016 0.030413222 4278190335
-0.070094965 -0.065755434 0.027538378 4278190335
-0.070094965 -0.061653852 0.022248203 4278190335
-0.070094965 -0.057552271 0.011418259 4278190335
-0.070094965 0.065495171 0.011117738 4278190335
-0.070094965 0.069596753 0.012915659 4278190335
-0.070094965 0.073698334 0.015238005 4278190335
-0.070094965 0.077799916 0.017560352 4278190335
-0.070094965 0.081901498 0.018524911 4278190335
-0.070094965 0.08600308 0.018197106 4278190335
-0.070094965 0.090104662 0.0181673 4278190335
-0.070094965 0.094206244 0.020098461 4278190335
-0.070094965 0.16393313 0.018946681 4278190335
-0.070094965 0.1680347 0.01821148 4278190335
-0.070094965 0.17213629 0.017476277 4278190335
-0.070094965 0.17623787 0.016686227 4278190335
-0.070094965 0.18033946 0.014159353 4278190335
-0.070094965 0.18444103 0.011197809 4278190335
-0.065993384 -0.13548231 0.019075705 4278190335
-0.065993384 -0.13138074 0.023884965 4278190335
-0.065993384 -0.12727915 0.023270188 4278190335
-0.065993384 -0.12317757 0.022246769 4278190335
-0.065993384 -0.11907599 0.023863044 4278190335
-0.065993384 -0.11497441 0.025156077 4278190335
-0.065993384 -0.11087283 0.026100563 4278190335
-0.065993384 -0.10677125 0.031249681 4278190335
-0.065993384 -0.10266966 0.034102488 4278190335
-0.065993384 -0.098568082 0.034594584 4278190335
-0.065993384 -0.0944665 0.03293914 4278190335
-0.065993384 -0.090364918 0.0344624 4278190335
-0.065993384 -0.086263336 0.036386337 4278190335
-0.065993384 -0.082161754 0.036861181 4278190335
-0.065993384 -0.07806018 0.036732998 4278190335
-0.065993384 -0.073958598 0.03468138 4278190335
-0.065993384 -0.069857016 0.03347322 4278190335
-0.065993384 -0.065755434 0.028132308 4278190335
-0.065993384 -0.061653852 0.020756956 4278190335
-0.065993384 -0.057552271 0.012509334 4278190335
-0.065993384 0.069596753 0.011342412 4278190335
-0.065993384 0.073698334 0.013664759 4278190335
-0.065993384 0.077799916 0.015698915 4278190335
-0.065993384 0.081901498 0.015371111 4278190335
-0.065993384 0.08600308 0.015043306 4278190335
-0.065993384 0.090104662 0.016950186 4278190335
-0.065993384 0.094206244 0.018881347 4278190335
-0.065993384 0.15983154 0.017335389 4278190335
-0.065993384 0.16393313 0.016600186 4278190335
-0.065993384 0.1680347 0.015864985 4278190335
-0.065993384 0.17213629 0.015129784 4278190335
-0.065993384 0.17623787 0.014394582 4278190335
-0.065993384 0.18033946 0.013320806 4278190335
-0.065993384 0.18444103 0.010793932 4278190335
-0.061891805 -0.1395839 0.012572305 4278190335
-0.061891805 -0.13548231 0.022471227 4278190335
-0.061891805 -0.13138074 0.028408632 4278190335
-0.061891805 -0.12727915 0.028389512 4278190335
-0.061891805 -0.12317757 0.030945083 4278190335
-0.061891805 -0.11907599 0.035704117 4278190335
-0.061891805 -0.11497441 0.037523087 4278190335
-0.061891805 -0.11087283 0.037045334 4278190335
-0.061891805 -0.10677125 0.037484765 4278190335
-0.061891805 -0.10266966 0.037619341 4278190335
-0.061891805 -0.098568082 0.036774136 4278190335
-0.061891805 -0.0944665 0.036683746 4278190335
-0.061891805 -0.090364918 0.036860894 4278190335
-0.061891805 -0.086263336 0.038340397 4278190335
-0.061891805 -0.082161754 0.038850002 4278190335
-0.061891805 -0.07806018 0.039490566 4278190335
-0.061891805 -0.073958598 0.038669605 4278190335
-0.061891805 -0.069857016 0.034736585 4278190335
-0.061891805 -0.065755434 0.027655277 4278190335
-0.061891805 -0.061653852 0.020153996 4278190335
-0.061891805 -0.057552271 0.011963546 4278190335
-0.061891805 0.073698334 0.012091512 4278190335
-0.061891805 0.077799916 0.012545115 4278190335
-0.061891805 0.081901498 0.01221731 4278190335
-0.061891805 0.08600308 0.013801914 4278190335
-0.061891805 0.090104662 0.015733074 4278190335
-0.061891805 0.094206244 0.017664235 4278190335
-0.061891805 0.15983154 0.014988894 4278190335
-0.061891805 0.16393313 0.014253692 4278190335
-0.061891805 0.1680347 0.013518491 4278190335
-0.061891805 0.17213629 0.012783289 4278190335
-0.061891805 0.17623787 0.012048088 4278190335
-0.061891805 0.18033946 0.011312886 4278190335
-0.057790224 -0.1395839 0.014931704 4278190335
-0.057790224 -0.13548231 0.023809703 4278190335
-0.057790224 -0.13138074 0.027660778 4278190335
-0.057790224 -0.12727915 0.032044008 4278190335
-0.057790224 -0.12317757 0.035604205 4278190335
-0.057790224 -0.11907599 0.038934648 4278190335
-0.057790224 -0.11497441 0.0412779 4278190335
-0.057790224 -0.11087283 0.041374125 4278190335
-0.057790224 -0.10677125 0.040084239 4278190335
-0.057790224 -0.10266966 0.039546184 4278190335
-0.057790224 -0.098568082 0.038229559 4278190335
-0.057790224 -0.0944665 0.0377381 4278190335
-0.057790224 -0.090364918 0.038086977 4278190335
-0.057790224 -0.086263336 0.039356414 4278190335
-0.057790224 -0.082161754 0.039958347 4278190335
-0.057790224 -0.07806018 0.040809542 4278190335
-0.057790224 -0.073958598 0.037691526 4278190335
-0.057790224 -0.069857016 0.03202723 4278190335
-0.057790224 -0.065755434 0.025113635 4278190335
-0.057790224 -0.061653852 0.017986005 4278190335
-0.057790224 -0.057552271 0.01098228 4278190335
-0.057790224 0.081901498 0.010653641 4278190335
-0.057790224 0.08600308 0.012584802 4278190335
-0.057790224 0.090104662 0.014515962 4278190335
-0.057790224 0.094206244 0.016381552 4278190335
-0.057790224 0.15572996 0.0133776 4278190335
-0.057790224 0.15983154 0.012642399 4278190335
-0.057790224 0.16393313 0.011907198 4278190335
-0.057790224 0.1680347 0.011171997 4278190335
-0.057790224 0.17213629 0.010436795 4278190335
-0.053688642 -0.1395839 0.015947945 4278190335
-0.053688642 -0.13548231 0.021082204 4278190335
-0.053688642 -0.13138074 0.025039047 4278190335
-0.053688642 -0.12727915 0.028995888 4278190335
-0.053688642 -0.12317757 0.03295273 4278190335
-0.053688642 -0.11907599 0.036909573 4278190335
-0.053688642 -0.11497441 0.040445529 4278190335
-0.053688642 -0.11087283 0.043238096 4278190335
-0.053688642 -0.10677125 0.042250484 4278190335
-0.053688642 -0.10266966 0.040624235 4278190335
-0.053688642 -0.098568082 0.038858134 4278190335
-0.053688642 -0.0944665 0.038284093 4278190335
-0.053688642 -0.090364918 0.038757343 4278190335
-0.053688642 -0.086263336 0.039747182 4278190335
-0.053688642 -0.082161754 0.041113764 4278190335
-0.053688642 -0.07806018 0.040029787 4278190335
-0.053688642 -0.073958598 0.034697298 4278190335
-0.053688642 -0.069857016 0.029097937 4278190335
-0.053688642 -0.065755434 0.022618314 4278190335
-0.053688642 -0.061653852 0.015490685 4278190335
-0.053688642 0.08600308 0.01136769 4278190335
-0.053688642 0.090104662 0.013284802 4278190335
-0.053688642 0.094206244 0.015070288 4278190335
-0.053688642 0.15983154 0.010295904 4278190335
-0.04958706 -0.1395839 0.014077242 4278190335
-0.04958706 -0.13548231 0.018034082 4278190335
-0.04958706 -0.13138074 0.021990925 4278190335
-0.04958706 -0.12727915 0.025947766 4278190335
-0.04958706 -0.12317757 0.029904608 4278190335
-0.04958706 -0.11907599 0.033861451 4278190335
-0.04958706 -0.11497441 0.03781829 4278190335
-0.04958706 -0.11087283 0.041775133 4278190335
-0.04958706 -0.10677125 0.044237092 4278190335
-0.04958706 -0.10266966 0.042843018 4278190335
-0.04958706 -0.098568082 0.039680157 4278190335
-0.04958706 -0.0944665 0.039131831 4278190335
-0.04958706 -0.090364918 0.039568163 4278190335
-0.04958706 -0.086263336 0.041017286 4278190335
-0.04958706 -0.082161754 0.042263329 4278190335
-0.04958706 -0.07806018 0.03727163 4278190335
-0.04958706 -0.073958598 0.031451643 4278190335
-0.04958706 -0.069857016 0.026119154 4278190335
-0.04958706 -0.065755434 0.020122992 4278190335
-0.04958706 -0.061653852 0.013662804 4278190335
-0.04958706 0.08600308 0.010150577 4278190335
-0.04958706 0.090104662 0.011973538 4278190335
-0.04958706 0.094206244 0.013759024 4278190335
-0.045485482 -0.1395839 0.013061007 4278190335
-0.045485482 -0.13548231 0.017042091 4278190335
-0.045485482 -0.13138074 0.02111589 4278190335
-0.045485482 -0.12727915 0.025189688 4278190335
-0.045485482 -0.12317757 0.029263487 4278190335
-0.045485482 -0.11907599 0.033337288 4278190335
-0.045485482 -0.11497441 0.037411086 4278190335
-0.045485482 -0.11087283 0.040314324 4278190335
-0.045485482 -0.10677125 0.042555559 4278190335
-0.045485482 -0.10266966 0.044409309 4278190335
-0.045485482 -0.098568082 0.041891638 4278190335
-0.045485482 -0.0944665 0.040557958 4278190335
-0.045485482 -0.090364918 0.040867358 4278190335
-0.045485482 -0.086263336 0.042559166 4278190335
-0.045485482 -0.082161754 0.040924121 4278190335
-0.045485482 -0.07806018 0.035346784 4278190335
-0.045485482 -0.073958598 0.029479833 4278190335
-0.045485482 -0.069857016 0.023612883 4278190335
-0.045485482 -0.065755434 0.017745933 4278190335
-0.045485482 -0.061653852 0.012501997 4278190335
-0.045485482 0.090104662 0.010662273 4278190335
-0.045485482 0.094206244 0.01244776 4278190335
-0.045485482 0.098307826 0.014109159 4278190335
-0.0413839 -0.1395839 0.013268759 4278190335
-0.0413839 -0.13548231 0.017342558 4278190335
-0.0413839 -0.13138074 0.021416357 4278190335
-0.0413839 -0.12727915 0.025490155 4278190335
-0.0413839 -0.12317757 0.029563954 4278190335
-0.0413839 -0.11907599 0.033011973 4278190335
-0.0413839 -0.11497441 0.035253212 4278190335
-0.0413839 -0.11087283 0.037070788 4278190335
-0.0413839 -0.10677125 0.038752325 4278190335
-0.0413839 -0.10266966 0.040638108 4278190335
-0.0413839 -0.098568082 0.042589031 4278190335
-0.0413839 -0.0944665 0.042285614 4278190335
-0.0413839 -0.090364918 0.042084549 4278190335
-0.0413839 -0.086263336 0.040016368 4278190335
-0.0413839 -0.082161754 0.036458045 4278190335
-0.0413839 -0.07806018 0.033152834 4278190335
-0.0413839 -0.073958598 0.028222881 4278190335
-0.0413839 -0.069857016 0.022355931 4278190335
-0.0413839 -0.065755434 0.016488981 4278190335
-0.0413839 -0.061653852 0.011486754 4278190335
-0.0413839 0.094206244 0.011136495 4278190335
-0.0413839 0.098307826 0.012719798 4278190335
-0.037282318 -0.1395839 0.013569226 4278190335
-0.037282318 -0.13548231 0.017643025 4278190335
-0.037282318 -0.13138074 0.021716824 4278190335
-0.037282318 -0.12727915 0.025709625 4278190335
-0.037282318 -0.12317757 0.027950861 4278190335
-0.037282318 -0.11907599 0.029731978 4278190335
-0.037282318 -0.11497441 0.031483252 4278190335
-0.037282318 -0.11087283 0.033592787 4278190335
-0.037282318 -0.10677125 0.036372509 4278190335
-0.037282318 -0.10266966 0.03730182 4278190335
-0.037282318 -0.098568082 0.038066868 4278190335
-0.037282318 -0.0944665 0.038831916 4278190335
-0.037282318 -0.090364918 0.037004076 4278190335
-0.037282318 -0.086263336 0.036657326 4278190335
-0.037282318 -0.082161754 0.033562217 4278190335
-0.037282318 -0.07806018 0.028816175 4278190335
-0.037282318 -0.073958598 0.025381548 4278190335
-0.037282318 -0.069857016 0.021098977 4278190335
-0.037282318 -0.065755434 0.015232028 4278190335
-0.037282318 0.098307826 0.011654782 4278190335
-0.037282318 0.10240941 0.011202747 4278190335
-0.033180736 -0.1395839 0.013869694 4278190335
-0.033180736 -0.13548231 0.017943492 4278190335
-0.033180736 -0.13138074 0.020648511 4278190335
-0.033180736 -0.12727915 0.022393169 4278190335
-0.033180736 -0.12317757 0.024317257 4278190335
-0.033180736 -0.11907599 0.027096979 4278190335
-0.033180736 -0.11497441 0.029876703 4278190335
-0.033180736 -0.11087283 0.031249562 4278190335
-0.033180736 -0.10677125 0.032014612 4278190335
-0.033180736 -0.10266966 0.03277966 4278190335
-0.033180736 -0.098568082 0.033544704 4278190335
-0.033180736 -0.0944665 0.034309752 4278190335
-0.033180736 -0.090364918 0.034643207 4278190335
-0.033180736 -0.086263336 0.031722534 4278190335
-0.033180736 -0.082161754 0.031178586 4278190335
-0.033180736 -0.07806018 0.027108068 4278190335
-0.033180736 -0.073958598 0.022362022 4278190335
-0.033180736 -0.069857016 0.017615978 4278190335
-0.033180736 -0.065755434 0.013975075 4278190335
-0.029079154 -0.14368547 0.010096361 4278190335
-0.029079154 -0.1395839 0.013346163 4278190335
-0.029079154 -0.13548231 0.015143607 4278190335
-0.029079154 -0.13138074 0.01782145 4278190335
-0.029079154 -0.12727915 0.020601172 4278190335
-0.029079154 -0.12317757 0.023380896 4278190335
-0.029079154 -0.11907599 0.025197307 4278190335
-0.029079154 -0.11497441 0.025962355 4278190335
-0.029079154 -0.11087283 0.026727401 4278190335
-0.029079154 -0.10677125 0.027492449 4278190335
-0.029079154 -0.10266966 0.028257497 4278190335
-0.029079154 -0.098568082 0.029022545 4278190335
-0.029079154 -0.0944665 0.029787593 4278190335
-0.029079154 -0.090364918 0.030552639 4278190335
-0.029079154 -0.086263336 0.029404266 4278190335
-0.029079154 -0.082161754 0.026440997 4278190335
-0.029079154 -0.07806018 0.025399961 4278190335
-0.029079154 -0.073958598 0.020653917 4278190335
-0.029079154 -0.069857016 0.015907871 4278190335
-0.029079154 -0.065755434 0.011161827 4278190335
-0.024977572 -0.1395839 0.011325642 4278190335
-0.024977572 -0.13548231 0.014105366 4278190335
-0.024977572 -0.13138074 0.016885089 4278190335
-0.024977572 -0.12727915 0.019145049 4278190335
-0.024977572 -0.12317757 0.019910097 4278190335
-0.024977572 -0.11907599 0.020675145 4278190335
-0.024977572 -0.11497441 0.021440191 4278190335
-0.024977572 -0.11087283 0.022205239 4278190335
-0.024977572 -0.10677125 0.022970287 4278190335
-0.024977572 -0.10266966 0.023735335 4278190335
-0.024977572 -0.098568082 0.024500383 4278190335
-0.024977572 -0.0944665 0.025265431 4278190335
-0.024977572 -0.090364918 0.026030477 4278190335
-0.024977572 -0.086263336 0.026795525 4278190335
-0.024977572 -0.082161754 0.02415218 4278190335
-0.024977572 -0.07806018 0.021159457 4278190335
-0.024977572 -0.073958598 0.018945809 4278190335
-0.024977572 -0.069857016 0.014199764 4278190335
-0.020875992 -0.1395839 0.010389281 4278190335
-0.020875992 -0.13548231 0.013092792 4278190335
-0.020875992 -0.13138074 0.01385784 4278190335
-0.020875992 -0.12727915 0.014622888 4278190335
-0.020875992 -0.12317757 0.015387935 4278190335
-0.020875992 -0.11907599 0.016152984 4278190335
-0.020875992 -0.11497441 0.01691803 4278190335
-0.020875992 -0.11087283 0.017683078 4278190335
-0.020875992 -0.10677125 0.018448126 4278190335
-0.020875992 -0.10266966 0.019213174 4278190335
-0.020875992 -0.098568082 0.019978222 4278190335
-0.020875992 -0.0944665 0.020743268 4278190335
-0.020875992 -0.090364918 0.021508316 4278190335
-0.020875992 -0.086263336 0.022273364 4278190335
-0.020875992 -0.082161754 0.022935212 4278190335
-0.020875992 -0.07806018 0.018921405 4278190335
-0.020875992 -0.073958598 0.015877917 4278190335
-0.020875992 -0.069857016 0.012491657 4278190335
-0.01677441 -0.12727915 0.010100726 4278190335
-0.01677441 -0.12317757 0.010865773 4278190335
-0.01677441 -0.11907599 0.011630821 4278190335
-0.01677441 -0.11497441 0.012395868 4278190335
-0.01677441 -0.11087283 0.013160916 4278190335
-0.01677441 -0.10677125 0.013925964 4278190335
-0.01677441 -0.10266966 0.014691011 4278190335
-0.01677441 -0.098568082 0.015456059 4278190335
-0.01677441 -0.0944665 0.016221106 4278190335
-0.01677441 -0.090364918 0.016986154 4278190335
-0.01677441 -0.086263336 0.017751202 4278190335
-0.01677441 -0.082161754 0.01851625 4278190335
-0.01677441 -0.07806018 0.018007031 4278190335
-0.01677441 -0.073958598 0.01369063 4278190335
-0.01677441 -0.069857016 0.010553224 4278190335
-0.01677441 0.0080730328 0.010049209 4278190335
-0.012672829 -0.10266966 0.010168849 4278190335
-0.012672829 -0.098568082 0.010933897 4278190335
-0.012672829 -0.0944665 0.011698944 4278190335
-0.012672829 -0.090364918 0.012463992 4278190335
-0.012672829 -0.086263336 0.01322904 4278190335
-0.012672829 -0.082161754 0.013994087 4278190335
-0.012672829 -0.07806018 0.014759135 4278190335
-0.012672829 -0.073958598 0.012626768 4278190335
-0.012672829 0.0039714519 0.020309176 4278190335
-0.012672829 0.0080730328 0.023952898 4278190335
-0.012672829 0.012174615 0.028681939 4278190335
-0.0085712476 -0.07806018 0.010236974 4278190335
-0.0085712476 -0.073958598 0.011002021 4278190335
-0.0085712476 -0.00013012954 0.025533231 4278190335
-0.0085712476 0.0039714519 0.032968335 4278190335
-0.0085712476 0.0080730328 0.015854418 4278190335
-0.0085712476 0.012174615 0.025970668 4278190335
-0.0085712476 0.016276196 0.028268149 4278190335
-0.0085712476 0.020377778 0.030119155 4278190335
-0.0044696657 -0.00013012954 0.019691907 4278190335
-0.0044696657 0.020377778 0.022287296 4278190335
-0.0044696657 0.024479359 0.032899778 4278190335
-0.0044696657 0.028580939 0.017190713 4278190335
-0.0044696657 0.032682523 0.017594345 4278190335
-0.0044696657 0.036784101 0.01233287 4278190335
-0.00036808429 -0.0083332928 0.021596691 4278190335
-0.00036808429 -0.0042317109 0.019896282 4278190335
-0.00036808429 0.0039714519 0.02797869 4278190335
-0.00036808429 0.0080730328 0.010867575 4278190335
-0.00036808429 0.012174615 0.042600952 4278190335
-0.00036808429 0.016276196 0.043280572 4278190335
-0.00036808429 0.020377778 0.041586805 4278190335
-0.00036808429 0.024479359 0.024413589 4278190335
-0.00036808429 0.028580939 0.027300045 4278190335
-0.00036808429 0.036784101 0.027459109 4278190335
-0.00036808429 0.040885683 0.03116994 4278190335
0.0037334971 -0.0083332928 0.020089353 4278190335
0.0037334971 -0.0042317109 0.01651863 4278190335
0.0037334971 0.0039714519 0.0437208 4278190335
0.0037334971 0.0080730328 0.044436678 4278190335
0.0037334971 0.012174615 0.044693336 4278190335
0.0037334971 0.016276196 0.044606816 4278190335
0.0037334971 0.020377778 0.044362351 4278190335
0.0037334971 0.024479359 0.043266058 4278190335
0.0037334971 0.028580939 0.041183893 4278190335
0.0037334971 0.032682523 0.039300364 4278190335
0.0037334971 0.036784101 0.038657874 4278190335
0.0037334971 0.040885683 0.030874293 4278190335
0.0037334971 0.044987265 0.015285519 4278190335
0.0078350781 -0.012434874 0.032838702 4278190335
0.0078350781 -0.0083332928 0.036546741 4278190335
0.0078350781 -0.00013012954 0.044549186 4278190335
0.0078350781 0.0039714519 0.045896962 4278190335
0.0078350781 0.0080730328 0.046371173 4278190335
0.0078350781 0.012174615 0.046608321 4278190335
0.0078350781 0.016276196 0.046717901 4278190335
0.0078350781 0.020377778 0.046288572 4278190335
0.0078350781 0.024479359 0.046858851 4278190335
0.0078350781 0.028580939 0.046286449 4278190335
0.0078350781 0.032682523 0.043809451 4278190335
0.0078350781 0.036784101 0.041722447 4278190335
0.0078350781 0.040885683 0.039331786 4278190335
0.0078350781 0.044987265 0.034561273 4278190335
0.0078350781 0.049088847 0.011878262 4278190335
0.01193666 -0.016536456 0.019050991 4278190335
0.01193666 -0.0083332928 0.040778302 4278190335
0.01193666 -0.0042317109 0.045377482 4278190335
0.01193666 -0.00013012954 0.046671964 4278190335
0.01193666 0.0039714519 0.048298378 4278190335
0.01193666 0.0080730328 0.049234733 4278190335
0.01193666 0.012174615 0.049700439 4278190335
0.01193666 0.016276196 0.04953932 4278190335
0.01193666 0.020377778 0.049592476 4278190335
0.01193666 0.024479359 0.050342824 4278190335
0.01193666 0.028580939 0.049623761 4278190335
0.01193666 0.032682523 0.047618411 4278190335
0.01193666 0.036784101 0.044824924 4278190335
0.01193666 0.040885683 0.041618921 4278190335
0.01193666 0.044987265 0.038963754 4278190335
0.01193666 0.049088847 0.019888263 4278190335
0.01193666 0.053190429 0.02924224 4278190335
0.016038241 -0.016536456 0.039033208 4278190335
0.016038241 -0.012434874 0.016648451 4278190335
0.016038241 -0.0083332928 0.041887954 4278190335
0.016038241 -0.0042317109 0.048165273 4278190335
0.016038241 -0.00013012954 0.049279656 4278190335
0.016038241 0.0039714519 0.049954753 4278190335
0.016038241 0.0080730328 0.051756103 4278190335
0.016038241 0.012174615 0.05198605 4278190335
0.016038241 0.016276196 0.051912632 4278190335
0.016038241 0.020377778 0.052312009 4278190335
0.016038241 0.024479359 0.052481882 4278190335
0.016038241 0.028580939 0.052273691 4278190335
0.016038241 0.032682523 0.050667066 4278190335
0.016038241 0.036784101 0.047332674 4278190335
0.016038241 0.040885683 0.043899048 4278190335
0.016038241 0.044987265 0.041543055 4278190335
0.016038241 0.049088847 0.038138833 4278190335
0.016038241 0.057292011 0.017211514 4278190335
0.020139823 -0.016536456 0.011150809 4278190335
0.020139823 -0.0083332928 0.038118277 4278190335
0.020139823 -0.0042317109 0.050204996 4278190335
0.020139823 -0.00013012954 0.051309854 4278190335
0.020139823 0.0039714519 0.052525532 4278190335
0.020139823 0.0080730328 0.053855512 4278190335
0.020139823 0.012174615 0.054170385 4278190335
0.020139823 0.016276196 0.05407618 4278190335
0.020139823 0.020377778 0.054504111 4278190335
0.020139823 0.024479359 0.05463478 4278190335
0.020139823 0.028580939 0.054067329 4278190335
0.020139823 0.032682523 0.052585468 4278190335
0.020139823 0.036784101 0.050228726 4278190335
0.020139823 0.040885683 0.046504404 4278190335
0.020139823 0.044987265 0.043003492 4278190335
0.020139823 0.049088847 0.040560469 4278190335
0.020139823 0.053190429 0.037293617 4278190335
0.020139823 0.061393593 0.014271897 4278190335
0.024241405 -0.0083332928 0.022806978 4278190335
0.024241405 -0.0042317109 0.043515459 4278190335
0.024241405 -0.00013012954 0.05285389 4278190335
0.024241405 0.0039714519 0.054012045 4278190335
0.024241405 0.0080730328 0.055722598 4278190335
0.024241405 0.012174615 0.057057522 4278190335
0.024241405 0.016276196 0.057474643 4278190335
0.024241405 0.020377778 0.057611771 4278190335
0.024241405 0.024479359 0.057067659 4278190335
0.024241405 0.028580939 0.056161553 4278190335
0.024241405 0.032682523 0.054789323 4278190335
0.024241405 0.036784101 0.052529611 4278190335
0.024241405 0.040885683 0.049723536 4278190335
0.024241405 0.044987265 0.045363411 4278190335
0.024241405 0.049088847 0.042980719 4278190335
0.024241405 0.053190429 0.04026287 4278190335
0.024241405 0.057292011 0.036560837 4278190335
0.024241405 0.061393593 0.014001244 4278190335
0.024241405 0.065495171 0.016268386 4278190335
0.028342985 -0.016536456 0.010736034 4278190335
0.028342985 -0.012434874 0.01102771 4278190335
0.028342985 -0.0083332928 0.028977027 4278190335
0.028342985 -0.0042317109 0.046215247 4278190335
0.028342985 -0.00013012954 0.054079667 4278190335
0.028342985 0.0039714519 0.055508953 4278190335
0.028342985 0.0080730328 0.05878678 4278190335
0.028342985 0.012174615 0.060115125 4278190335
0.028342985 0.016276196 0.060382705 4278190335
0.028342985 0.020377778 0.060309727 4278190335
0.028342985 0.024479359 0.060008269 4278190335
0.028342985 0.028580939 0.058058541 4278190335
0.028342985 0.032682523 0.0562969 4278190335
0.028342985 0.036784101 0.054693069 4278190335
0.028342985 0.040885683 0.051791359 4278190335
0.028342985 0.044987265 0.049329739 4278190335
0.028342985 0.049088847 0.045992166 4278190335
0.028342985 0.053190429 0.04227056 4278190335
0.028342985 0.057292011 0.039823864 4278190335
0.028342985 0.061393593 0.036029872 4278190335
0.028342985 0.069596753 0.024170239 4278190335
0.032444566 -0.012434874 0.015715608 4278190335
0.032444566 -0.0083332928 0.028473765 4278190335
0.032444566 -0.0042317109 0.044842243 4278190335
0.032444566 -0.00013012954 0.052787896 4278190335
0.032444566 0.0039714519 0.058596604 4278190335
0.032444566 0.0080730328 0.06144689 4278190335
0.032444566 0.012174615 0.063073732 4278190335
0.032444566 0.016276196 0.063750267 4278190335
0.032444566 0.020377778 0.064357214 4278190335
0.032444566 0.024479359 0.06250412 4278190335
0.032444566 0.028580939 0.059577834 4278190335
0.032444566 0.032682523 0.05785292 4278190335
0.032444566 0.036784101 0.055745646 4278190335
0.032444566 0.040885683 0.054704759 4278190335
0.032444566 0.044987265 0.052511364 4278190335
0.032444566 0.049088847 0.048870537 4278190335
0.032444566 0.053190429 0.045281157 4278190335
0.032444566 0.057292011 0.042183626 4278190335
0.032444566 0.061393593 0.038904954 4278190335
0.032444566 0.065495171 0.034418903 4278190335
0.032444566 0.073698334 0.01467954 4278190335
0.036546148 -0.012434874 0.020207096 4278190335
0.036546148 -0.0083332928 0.028814342 4278190335
0.036546148 -0.0042317109 0.041456506 4278190335
0.036546148 -0.00013012954 0.049885381 4278190335
0.036546148 0.0039714519 0.054226059 4278190335
0.036546148 0.0080730328 0.058566738 4278190335
0.036546148 0.012174615 0.06290742 4278190335
0.036546148 0.016276196 0.066337891 4278190335
0.036546148 0.020377778 0.067399621 4278190335
0.036546148 0.024479359 0.065197818 4278190335
0.036546148 0.028580939 0.061378095 4278190335
0.036546148 0.032682523 0.058916431 4278190335
0.036546148 0.036784101 0.057001863 4278190335
0.036546148 0.040885683 0.055788603 4278190335
0.036546148 0.044987265 0.054309916 4278190335
0.036546148 0.049088847 0.052548029 4278190335
0.036546148 0.053190429 0.047806971 4278190335
0.036546148 0.057292011 0.044556059 4278190335
0.036546148 0.061393593 0.041986559 4278190335
0.036546148 0.065495171 0.038388334 4278190335
0.036546148 0.069596753 0.020205596 4278190335
0.036546148 0.073698334 0.011463772 4278190335
0.036546148 0.077799916 0.014587857 4278190335
0.04064773 -0.012434874 0.020169396 4278190335
0.04064773 -0.0083332928 0.032906093 4278190335
0.04064773 -0.0042317109 0.040639769 4278190335
0.04064773 -0.00013012954 0.044980451 4278190335
0.04064773 0.0039714519 0.04932113 4278190335
0.04064773 0.0080730328 0.053661812 4278190335
0.04064773 0.012174615 0.058104098 4278190335
0.04064773 0.016276196 0.062797464 4278190335
0.04064773 0.020377778 0.067338392 4278190335
0.04064773 0.024479359 0.067877501 4278190335
0.04064773 0.028580939 0.063269958 4278190335
0.04064773 0.032682523 0.059993386 4278190335
0.04064773 0.036784101 0.058051277 4278190335
0.04064773 0.040885683 0.057330504 4278190335
0.04064773 0.044987265 0.056430485 4278190335
0.04064773 0.049088847 0.054919232 4278190335
0.04064773 0.053190429 0.051772129 4278190335
0.04064773 0.057292011 0.047065653 4278190335
0.04064773 0.061393593 0.04386548 4278190335
0.04064773 0.065495171 0.04150429 4278190335
0.04064773 0.069596753 0.038465969 4278190335
0.04064773 0.073698334 0.025561748 4278190335
0.044749312 -0.016536456 0.011813206 4278190335
0.044749312 -0.012434874 0.024352923 4278190335
0.044749312 -0.0083332928 0.031394161 4278190335
0.044749312 -0.0042317109 0.03573484 4278190335
0.044749312 -0.00013012954 0.040075522 4278190335
0.044749312 0.0039714519 0.044690639 4278190335
0.044749312 0.0080730328 0.049384005 4278190335
0.044749312 0.012174615 0.054077376 4278190335
0.044749312 0.016276196 0.058770742 4278190335
0.044749312 0.020377778 0.063464113 4278190335
0.044749312 0.024479359 0.066826463 4278190335
0.044749312 0.028580939 0.065139979 4278190335
0.044749312 0.032682523 0.061163299 4278190335
0.044749312 0.036784101 0.058985997 4278190335
0.044749312 0.040885683 0.058339272 4278190335
0.044749312 0.044987265 0.058153298 4278190335
0.044749312 0.049088847 0.057302557 4278190335
0.044749312 0.053190429 0.05501676 4278190335
0.044749312 0.057292011 0.050839361 4278190335
0.044749312 0.061393593 0.046918485 4278190335
0.044749312 0.065495171 0.044915158 4278190335
0.044749312 0.069596753 0.043142848 4278190335
0.044749312 0.073698334 0.03690891 4278190335
0.044749312 0.077799916 0.032297093 4278190335
0.044749312 0.081901498 0.012865183 4278190335
0.048850894 -0.016536456 0.015799755 4278190335
0.048850894 -0.012434874 0.022148551 4278190335
0.048850894 -0.0083332928 0.026583815 4278190335
0.048850894 -0.0042317109 0.031277183 4278190335
0.048850894 -0.00013012954 0.03597055 4278190335
0.048850894 0.0039714519 0.040663917 4278190335
0.048850894 0.0080730328 0.045357283 4278190335
0.048850894 0.012174615 0.050050654 4278190335
0.048850894 0.016276196 0.05474402 4278190335
0.048850894 0.020377778 0.059437387 4278190335
0.048850894 0.024479359 0.064130753 4278190335
0.048850894 0.028580939 0.066314533 4278190335
0.048850894 0.032682523 0.062146954 4278190335
0.048850894 0.036784101 0.060469806 4278190335
0.048850894 0.040885683 0.059635218 4278190335
0.048850894 0.044987265 0.060865451 4278190335
0.048850894 0.049088847 0.060509261 4278190335
0.048850894 0.053190429 0.058870148 4278190335
0.048850894 0.057292011 0.055082995 4278190335
0.048850894 0.061393593 0.05038831 4278190335
0.048850894 0.065495171 0.047065087 4278190335
0.048850894 0.069596753 0.043869529 4278190335
0.048850894 0.073698334 0.040021151 4278190335
0.048850894 0.077799916 0.035102077 4278190335
0.048850894 0.081901498 0.029798619 4278190335
0.052952472 -0.016536456 0.013170357 4278190335
0.052952472 -0.012434874 0.017863724 4278190335
0.052952472 -0.0083332928 0.022557093 4278190335
0.052952472 -0.0042317109 0.027250459 4278190335
0.052952472 -0.00013012954 0.031943828 4278190335
0.052952472 0.0039714519 0.036637194 4278190335
0.052952472 0.0080730328 0.041330561 4278190335
0.052952472 0.012174615 0.046023931 4278190335
0.052952472 0.016276196 0.050717298 4278190335
0.052952472 0.020377778 0.055410665 4278190335
0.052952472 0.024479359 0.060104031 4278190335
0.052952472 0.028580939 0.064797401 4278190335
0.052952472 0.032682523 0.064455293 4278190335
0.052952472 0.036784101 0.061375692 4278190335
0.052952472 0.040885683 0.061506722 4278190335
0.052952472 0.044987265 0.064116247 4278190335
0.052952472 0.049088847 0.064997301 4278190335
0.052952472 0.053190429 0.064561725 4278190335
0.052952472 0.057292011 0.061698243 4278190335
0.052952472 0.061393593 0.05691332 4278190335
0.052952472 0.065495171 0.050582789 4278190335
0.052952472 0.069596753 0.044909611 4278190335
0.052952472 0.073698334 0.039004903 4278190335
0.052952472 0.077799916 0.033100192 4278190335
0.052952472 0.081901498 0.027195485 4278190335
0.052952472 0.08600308 0.013269565 4278190335
0.057054054 -0.016536456 0.012458629 4278190335
0.057054054 -0.012434874 0.016941944 4278190335
0.057054054 -0.0083332928 0.021425258 4278190335
0.057054054 -0.0042317109 0.025908573 4278190335
0.057054054 -0.00013012954 0.030391887 4278190335
0.057054054 0.0039714519 0.034875203 4278190335
0.057054054 0.0080730328 0.039358515 4278190335
0.057054054 0.012174615 0.043841831 4278190335
0.057054054 0.016276196 0.048325144 4278190335
0.057054054 0.020377778 0.05280846 4278190335
0.057054054 0.024479359 0.057291772 4278190335
0.057054054 0.028580939 0.061886769 4278190335
0.057054054 0.032682523 0.06555777 4278190335
0.057054054 0.036784101 0.063695155 4278190335
0.057054054 0.040885683 0.06465479 4278190335
0.057054054 0.044987265 0.065077029 4278190335
0.057054054 0.049088847 0.063835628 4278190335
0.057054054 0.053190429 0.062408697 4278190335
0.057054054 0.057292011 0.060981758 4278190335
0.057054054 0.061393593 0.057327945 4278190335
0.057054054 0.065495171 0.050886724 4278190335
0.057054054 0.069596753 0.044981014 4278190335
0.057054054 0.073698334 0.038617201 4278190335
0.057054054 0.077799916 0.03271101 4278190335
0.057054054 0.081901498 0.026804822 4278190335
0.057054054 0.08600308 0.020611109 4278190335
0.061155636 -0.016536456 0.012151614 4278190335
0.061155636 -0.012434874 0.016634928 4278190335
0.061155636 -0.0083332928 0.021118242 4278190335
0.061155636 -0.0042317109 0.025773931 4278190335
0.061155636 -0.00013012954 0.030678131 4278190335
0.061155636 0.0039714519 0.035529647 4278190335
0.061155636 0.0080730328 0.039752178 4278190335
0.061155636 0.012174615 0.043974705 4278190335
0.061155636 0.016276196 0.048197236 4278190335
0.061155636 0.020377778 0.052419767 4278190335
0.061155636 0.024479359 0.056174617 4278190335
0.061155636 0.028580939 0.059020825 4278190335
0.061155636 0.032682523 0.061862908 4278190335
0.061155636 0.036784101 0.063945711 4278190335
0.061155636 0.040885683 0.06369175 4278190335
0.061155636 0.044987265 0.062264815 4278190335
0.061155636 0.049088847 0.060837876 4278190335
0.061155636 0.053190429 0.059410941 4278190335
0.061155636 0.057292011 0.057984006 4278190335
0.061155636 0.061393593 0.056557067 4278190335
0.061155636 0.065495171 0.051003821 4278190335
0.061155636 0.069596753 0.044662554 4278190335
0.061155636 0.073698334 0.039209016 4278190335
0.061155636 0.077799916 0.03280326 4278190335
0.061155636 0.081901498 0.026484141 4278190335
0.061155636 0.08600308 0.02057795 4278190335
0.065257221 -0.016536456 0.013395052 4278190335
0.065257221 -0.012434874 0.017617583 4278190335
0.065257221 -0.0083332928 0.021840114 4278190335
0.065257221 -0.0042317109 0.026062643 4278190335
0.065257221 -0.00013012954 0.030285174 4278190335
0.065257221 0.0039714519 0.034507703 4278190335
0.065257221 0.0080730328 0.038730234 4278190335
0.065257221 0.012174615 0.042952765 4278190335
0.065257221 0.016276196 0.04679146 4278190335
0.065257221 0.020377778 0.04963696 4278190335
0.065257221 0.024479359 0.052643199 4278190335
0.065257221 0.028580939 0.056619145 4278190335
0.065257221 0.032682523 0.058753338 4278190335
0.065257221 0.036784101 0.058972891 4278190335
0.065257221 0.040885683 0.059192445 4278190335
0.065257221 0.044987265 0.059165288 4278190335
0.065257221 0.049088847 0.057840124 4278190335
0.065257221 0.053190429 0.056413189 4278190335
0.065257221 0.057292011 0.05498625 4278190335
0.065257221 0.061393593 0.053559314 4278190335
0.065257221 0.065495171 0.051120918 4278190335
0.065257221 0.069596753 0.044679698 4278190335
0.065257221 0.073698334 0.03904504 4278190335
0.065257221 0.077799916 0.033437021 4278190335
0.065257221 0.081901498 0.027031265 4278190335
0.065257221 0.08600308 0.020625509 4278190335
0.065257221 0.090104662 0.011887761 4278190335
0.069358796 -0.016536456 0.012373111 4278190335
0.069358796 -0.012434874 0.016595641 4278190335
0.069358796 -0.0083332928 0.020818172 4278190335
0.069358796 -0.0042317109 0.025040703 4278190335
0.069358796 -0.00013012954 0.029263234 4278190335
0.069358796 0.0039714519 0.033485763 4278190335
0.069358796 0.0080730328 0.037408307 4278190335
0.069358796 0.012174615 0.040253099 4278190335
0.069358796 0.016276196 0.04369954 4278190335
0.069358796 0.020377778 0.04767549 4278190335
0.069358796 0.024479359 0.051847585 4278190335
0.069358796 0.028580939 0.053560965 4278190335
0.069358796 0.032682523 0.053780518 4278190335
0.069358796 0.036784101 0.054000076 4278190335
0.069358796 0.040885683 0.05421963 4278190335
0.069358796 0.044987265 0.054439183 4278190335
0.069358796 0.049088847 0.054518901 4278190335
0.069358796 0.053190429 0.053415433 4278190335
0.069358796 0.057292011 0.051988497 4278190335
0.069358796 0.061393593 0.050561562 4278190335
0.069358796 0.065495171 0.049134623 4278190335
0.069358796 0.069596753 0.044796795 4278190335
0.069358796 0.073698334 0.03861434 4278190335
0.069358796 0.077799916 0.033427525 4278190335
0.069358796 0.081901498 0.027665025 4278190335
0.069358796 0.08600308 0.021259269 4278190335
0.069358796 0.090104662 0.014658554 4278190335
0.073460378 -0.016536456 0.011351171 4278190335
0.073460378 -0.012434874 0.015573701 4278190335
0.073460378 -0.0083332928 0.019796232 4278190335
0.073460378 -0.0042317109 0.024018763 4278190335
0.073460378 -0.00013012954 0.02802515 4278190335
0.073460378 0.0039714519 0.030869234 4278190335
0.073460378 0.0080730328 0.034755886 4278190335
0.073460378 0.012174615 0.038731832 4278190335
0.073460378 0.016276196 0.042707782 4278190335
0.073460378 0.020377778 0.047153279 4278190335
0.073460378 0.024479359 0.048368596 4278190335
0.073460378 0.028580939 0.048588149 4278190335
0.073460378 0.032682523 0.048807703 4278190335
0.073460378 0.036784101 0.049027257 4278190335
0.073460378 0.040885683 0.04924681 4278190335
0.073460378 0.044987265 0.049466364 4278190335
0.073460378 0.049088847 0.049685922 4278190335
0.073460378 0.053190429 0.049872503 4278190335
0.073460378 0.057292011 0.048990745 4278190335
0.073460378 0.061393593 0.047563806 4278190335
0.073460378 0.065495171 0.046136871 4278190335
0.073460378 0.069596753 0.044709932 4278190335
0.073460378 0.073698334 0.038472671 4278190335
0.073460378 0.077799916 0.032996826 4278190335
0.073460378 0.081901498 0.027810009 4278190335
0.073460378 0.08600308 0.021893028 4278190335
0.073460378 0.090104662 0.015487272 4278190335
0.07756196 -0.016536456 0.01032923 4278190335
0.07756196 -0.012434874 0.014551761 4278190335
0.07756196 -0.0083332928 0.018641995 4278190335
0.07756196 -0.0042317109 0.021836283 4278190335
0.07756196 -0.00013012954 0.025812231 4278190335
0.07756196 0.0039714519 0.029788177 4278190335
0.07756196 0.0080730328 0.033764128 4278190335
0.07756196 0.012174615 0.037767913 4278190335
0.07756196 0.016276196 0.042458974 4278190335
0.07756196 0.020377778 0.043176223 4278190335
0.07756196 0.024479359 0.043395776 4278190335
0.07756196 0.028580939 0.04361533 4278190335
0.07756196 0.032682523 0.043834887 4278190335
0.07756196 0.036784101 0.044054441 4278190335
0.07756196 0.040885683 0.044273995 4278190335
0.07756196 0.044987265 0.044493549 4278190335
0.07756196 0.049088847 0.044713102 4278190335
0.07756196 0.053190429 0.044932656 4278190335
0.07756196 0.057292011 0.045152213 4278190335
0.07756196 0.061393593 0.044566054 4278190335
0.07756196 0.065495171 0.043139115 4278190335
0.07756196 0.069596753 0.04171218 4278190335
0.07756196 0.073698334 0.038589768 4278190335
0.07756196 0.077799916 0.032566126 4278190335
0.07756196 0.081901498 0.027379312 4278190335
0.07756196 0.08600308 0.022192495 4278190335
0.07756196 0.090104662 0.016121032 4278190335
0.081663541 -0.012434874 0.012892626 4278190335
0.081663541 -0.0083332928 0.016868575 4278190335
0.081663541 -0.0042317109 0.020844523 4278190335
0.081663541 -0.00013012954 0.024820471 4278190335
0.081663541 0.0039714519 0.028796418 4278190335
0.081663541 0.0080730328 0.033073608 4278190335
0.081663541 0.012174615 0.037764296 4278190335
0.081663541 0.016276196 0.037983853 4278190335
0.081663541 0.020377778 0.038203407 4278190335
0.081663541 0.024479359 0.038422961 4278190335
0.081663541 0.028580939 0.038642514 4278190335
0.081663541 0.032682523 0.038862068 4278190335
0.081663541 0.036784101 0.039081622 4278190335
0.081663541 0.040885683 0.039301176 4278190335
0.081663541 0.044987265 0.039520733 4278190335
0.081663541 0.049088847 0.039740287 4278190335
0.081663541 0.053190429 0.03995984 4278190335
0.081663541 0.057292011 0.040179394 4278190335
0.081663541 0.061393593 0.040398948 4278190335
0.081663541 0.065495171 0.040141363 4278190335
0.081663541 0.069596753 0.038714428 4278190335
0.081663541 0.073698334 0.037287489 4278190335
0.081663541 0.077799916 0.032265645 4278190335
0.081663541 0.081901498 0.026948612 4278190335
0.081663541 0.08600308 0.021761797 4278190335
0.081663541 0.090104662 0.016574981 4278190335
0.081663541 0.49205965 0.050991438 4278190335
0.085765123 -0.012434874 0.011900866 4278190335
0.085765123 -0.0083332928 0.015876815 4278190335
0.085765123 -0.0042317109 0.019852763 4278190335
0.085765123 -0.00013012954 0.023828711 4278190335
0.085765123 0.0039714519 0.028379302 4278190335
0.085765123 0.0080730328 0.032571927 4278190335
0.085765123 0.012174615 0.03279148 4278190335
0.085765123 0.016276196 0.033011034 4278190335
0.085765123 0.020377778 0.033230588 4278190335
0.085765123 0.024479359 0.033450142 4278190335
0.085765123 0.028580939 0.033669699 4278190335
0.085765123 0.032682523 0.033889253 4278190335
0.085765123 0.036784101 0.034108806 4278190335
0.085765123 0.040885683 0.03432836 4278190335
0.085765123 0.044987265 0.034547914 4278190335
0.085765123 0.049088847 0.034767468 4278190335
0.085765123 0.053190429 0.034987025 4278190335
0.085765123 0.057292011 0.035206579 4278190335
0.085765123 0.061393593 0.035426132 4278190335
0.085765123 0.065495171 0.035645686 4278190335
0.085765123 0.069596753 0.035716671 4278190335
0.085765123 0.073698334 0.034289736 4278190335
0.085765123 0.077799916 0.032382742 4278190335
0.085765123 0.081901498 0.026517913 4278190335
0.085765123 0.08600308 0.021331098 4278190335
0.085765123 0.090104662 0.016144281 4278190335
0.085765123 0.094206244 0.010767033 4278190335
0.089866705 -0.012434874 0.010909107 4278190335
0.089866705 -0.0083332928 0.014885055 4278190335
0.089866705 -0.0042317109 0.018993938 4278190335
0.089866705 -0.00013012954 0.023684995 4278190335
0.089866705 0.0039714519 0.027379556 4278190335
0.089866705 0.0080730328 0.027599109 4278190335
0.089866705 0.012174615 0.027818663 4278190335
0.089866705 0.016276196 0.028038219 4278190335
0.089866705 0.020377778 0.028257772 4278190335
0.089866705 0.024479359 0.028477326 4278190335
0.089866705 0.028580939 0.02869688 4278190335
0.089866705 0.032682523 0.028916435 4278190335
0.089866705 0.036784101 0.029135989 4278190335
0.089866705 0.040885683 0.029355543 4278190335
0.089866705 0.044987265 0.029575098 4278190335
0.089866705 0.049088847 0.029794652 4278190335
0.089866705 0.053190429 0.030014206 4278190335
0.089866705 0.057292011 0.030233761 4278190335
0.089866705 0.061393593 0.030453315 4278190335
0.089866705 0.065495171 0.030672869 4278190335
0.089866705 0.069596753 0.030892424 4278190335
0.089866705 0.073698334 0.031095847 4278190335
0.089866705 0.077799916 0.029865045 4278190335
0.089866705 0.081901498 0.026087213 4278190335
0.089866705 0.08600308 0.020900398 4278190335
0.089866705 0.090104662 0.015713584 4278190335
0.089866705 0.094206244 0.010894781 4278190335
0.089866705 0.49616122 0.06768965 4278190335
0.093968287 -0.0083332928 0.014299632 4278190335
0.093968287 -0.0042317109 0.01899069 4278190335
0.093968287 -0.00013012954 0.022187183 4278190335
0.093968287 0.0039714519 0.022406738 4278190335
0.093968287 0.0080730328 0.022626292 4278190335
0.093968287 0.012174615 0.022845846 4278190335
0.093968287 0.016276196 0.023065401 4278190335
0.093968287 0.020377778 0.023284955 4278190335
0.093968287 0.024479359 0.023504509 4278190335
0.093968287 0.028580939 0.023724064 4278190335
0.093968287 0.032682523 0.023943618 4278190335
0.093968287 0.036784101 0.024163172 4278190335
0.093968287 0.040885683 0.024382727 4278190335
0.093968287 0.044987265 0.024602281 4278190335
0.093968287 0.049088847 0.024821835 4278190335
0.093968287 0.053190429 0.02504139 4278190335
0.093968287 0.057292011 0.025260944 4278190335
0.093968287 0.061393593 0.025480498 4278190335
0.093968287 0.065495171 0.025700053 4278190335
0.093968287 0.069596753 0.025919607 4278190335
0.093968287 0.073698334 0.026139161 4278190335
0.093968287 0.077799916 0.026358714 4278190335
0.093968287 0.081901498 0.025440356 4278190335
0.093968287 0.08600308 0.020469699 4278190335
0.093968287 0.090104662 0.015448838 4278190335
0.093968287 0.094206244 0.010825042 4278190335
0.098069869 -0.0083332928 0.014296383 4278190335
0.098069869 -0.0042317109 0.016994812 4278190335
0.098069869 -0.00013012954 0.017214367 4278190335
0.098069869 0.0039714519 0.017433921 4278190335
0.098069869 0.0080730328 0.017653475 4278190335
0.098069869 0.012174615 0.01787303 4278190335
0.098069869 0.016276196 0.018092584 4278190335
0.098069869 0.020377778 0.018312138 4278190335
0.098069869 0.024479359 0.018531693 4278190335
0.098069869 0.028580939 0.018751247 4278190335
0.098069869 0.032682523 0.018970801 4278190335
0.098069869 0.036784101 0.019190354 4278190335
0.098069869 0.040885683 0.01940991 4278190335
0.098069869 0.044987265 0.019629464 4278190335
0.098069869 0.049088847 0.019849017 4278190335
0.098069869 0.053190429 0.020068573 4278190335
0.098069869 0.057292011 0.020288127 4278190335
0.098069869 0.061393593 0.02050768 4278190335
0.098069869 0.065495171 0.020727236 4278190335
0.098069869 0.069596753 0.02094679 4278190335
0.098069869 0.073698334 0.021166343 4278190335
0.098069869 0.077799916 0.021385899 4278190335
0.098069869 0.081901498 0.021605453 4278190335
0.098069869 0.08600308 0.020039 4278190335
0.098069869 0.090104662 0.015259728 4278190335
0.098069869 0.094206244 0.010538639 4278190335
0.098069869 0.5002628 0.068212017 4278190335
0.10217145 -0.0083332928 0.011802441 4278190335
0.10217145 -0.0042317109 0.012021995 4278190335
0.10217145 -0.00013012954 0.01224155 4278190335
0.10217145 0.0039714519 0.012461103 4278190335
0.10217145 0.0080730328 0.012680658 4278190335
0.10217145 0.012174615 0.012900213 4278190335
0.10217145 0.016276196 0.013119766 4278190335
0.10217145 0.020377778 0.013339321 4278190335
0.10217145 0.024479359 0.013558876 4278190335
0.10217145 0.028580939 0.013778429 4278190335
0.10217145 0.032682523 0.013997984 4278190335
0.10217145 0.036784101 0.014217538 4278190335
0.10217145 0.040885683 0.014437092 4278190335
0.10217145 0.044987265 0.014656647 4278190335
0.10217145 0.049088847 0.014876201 4278190335
0.10217145 0.053190429 0.015095755 4278190335
0.10217145 0.057292011 0.01531531 4278190335
0.10217145 0.061393593 0.015534864 4278190335
0.10217145 0.065495171 0.015754418 4278190335
0.10217145 0.069596753 0.01619206 4278190335
0.10217145 0.073698334 0.017014559 4278190335
0.10217145 0.077799916 0.017851697 4278190335
